ply
format ascii 1.0
comment PCL generated
element vertex 513
property float x
property float y
property float z
property uchar red
property uchar green
property uchar blue
property float nx
property float ny
property float nz
property float curvature
element camera 0
property float view_px
property float view_py
property float view_pz
property float x_axisx
property float x_axisy
property float x_axisz
property float y_axisx
property float y_axisy
property float y_axisz
property float z_axisx
property float z_axisy
property float z_axisz
property float focal
property float scalex
property float scaley
property float centerx
property float centery
property int viewportx
property int viewporty
property float k1
property float k2
end_header
-0.20106278 0.71796679 -0.0010323784 29 34 20 -0.10842621 -0.066454597 0.99188066 0.015633872
-0.19146819 0.71835321 0.001398174 26 31 17 -0.10438114 -0.065758906 0.99236077 0.015762966
-0.18176682 0.71890569 0.0048189959 27 32 18 -0.098649651 -0.065312274 0.99297643 0.01592722
-0.17148302 0.72028798 0.013188817 29 34 20 -0.09302099 -0.064626701 0.99356437 0.016061986
-0.16195956 0.72067523 0.015623515 27 32 18 -0.087287799 -0.06353341 0.99415493 0.016384628
-0.15268382 0.72073078 0.016079424 28 31 17 -0.079313077 -0.062813297 0.99486864 0.016778013
-0.14386377 0.72012246 0.012575679 30 33 19 -0.070714951 -0.062231895 0.99555326 0.016972767
-0.13447838 0.72034407 0.01402193 30 35 21 -0.061973818 -0.061089966 0.99620628 0.017284818
-0.12553161 0.71990156 0.011507293 28 33 19 -0.053208984 -0.060506754 0.99674845 0.01758026
-0.11646949 0.71962506 0.0099826669 29 34 20 -0.042890277 -0.060130876 0.99726844 0.017827131
-0.10750283 0.71918225 0.0074668718 29 34 20 -0.032847282 -0.059215646 0.99770445 0.018040584
-0.09872131 0.71840703 0.0029688806 31 36 22 -0.02283111 -0.059277683 0.9979803 0.018106731
-0.089726202 0.71796393 0.00045142646 29 34 20 -0.01462039 -0.058689184 0.99816918 0.018220743
-0.080441929 0.71801943 0.00090707751 30 35 21 -0.0041767377 -0.058345322 0.99828762 0.018340943
-0.071073607 0.71824121 0.002354084 30 35 21 0.0062447633 -0.058333658 0.99827743 0.018427024
-0.062238075 0.71746534 -0.0021470555 28 33 19 0.017874904 -0.058338992 0.99813658 0.018567286
-0.053631954 0.71619022 -0.0096245436 28 31 17 0.028128713 -0.058350891 0.99789959 0.01864489
-0.044661172 0.71558005 -0.013137072 28 31 17 0.03960032 -0.058680225 0.99749088 0.018617326
-0.035281464 0.71580172 -0.01169049 29 32 20 0.051056273 -0.059087653 0.9969461 0.018571224
-0.025686575 0.71652281 -0.007266969 30 33 21 0.061316695 -0.059373509 0.99635077 0.018545626
-0.016410831 0.71657842 -0.0068108216 27 31 23 0.07274358 -0.060054835 0.9955408 0.018464517
-0.0070011285 0.71696705 -0.0043697329 25 29 21 0.082295261 -0.060158722 0.99479043 0.01839854
0.0025255233 0.71768898 5.8003647e-005 26 30 22 0.093199104 -0.060978312 0.99377835 0.018249825
0.011895428 0.7180782 0.0025016489 26 32 24 0.1047148 -0.062120579 0.99256009 0.01807004
0.021309571 0.71863413 0.0059392112 25 31 23 0.11477809 -0.063135281 0.99138266 0.017849166
0.030467119 0.71852374 0.0054055154 28 33 22 0.12654381 -0.064278409 0.98987609 0.017583568
0.039847132 0.71908009 0.0088450657 27 32 20 0.13585484 -0.065649815 0.98855114 0.017366661
0.049151625 0.71947008 0.011292524 29 34 20 0.1457402 -0.06687174 0.98706007 0.017038533
0.058439061 0.71986014 0.013740977 28 33 21 0.15465359 -0.068272293 0.98560691 0.016784022
0.067662343 0.72008371 0.015196675 30 35 24 0.16409215 -0.069802776 0.98397207 0.016473453
0.076874241 0.72030741 0.0166528 31 36 25 0.17280668 -0.070890814 0.98240113 0.016266396
0.08590918 0.71986383 0.014133262 29 33 26 0.18009987 -0.072640754 0.98096234 0.015912302
0.094955489 0.71942014 0.011612826 34 38 31 0.18764175 -0.073984422 0.97944707 0.015596312
0.10390605 0.71847552 0.0061084894 33 39 31 0.19484691 -0.075265363 0.97794157 0.015383491
0.11301651 0.71819842 0.004580806 32 38 30 0.19956388 -0.076330639 0.97690719 0.01517806
0.12201257 0.71725327 -0.00092618255 33 40 29 0.2049844 -0.077351466 0.97570378 0.01487894
0.13111861 0.71680886 -0.0034501012 32 40 32 0.20957397 -0.078456692 0.97463989 0.014718588
0.14006567 0.71519482 -0.012940682 34 42 35 0.21198569 -0.079045497 0.97407067 0.01459506
0.14897798 0.71291196 -0.026415214 35 43 36 0.21499498 -0.080272302 0.97331053 0.014464933
0.15792692 0.71029383 -0.041885339 37 45 38 0.21752509 -0.0817274 0.97262692 0.01418718
0.16696119 0.70767474 -0.05736044 46 56 55 0.21998222 -0.082839154 0.97198009 0.014072973
-0.23294209 0.70401925 -0.028751893 32 40 37 -0.11508851 -0.071531735 0.99077624 0.015449326
-0.22215429 0.70576143 -0.018419534 27 33 26 -0.11269889 -0.071220964 0.99107337 0.015444649
-0.21089932 0.70817882 -0.0041283416 27 32 21 -0.11042691 -0.0702006 0.99140167 0.015470388
-0.20102558 0.70891082 0.00027843911 29 34 22 -0.10751499 -0.069955781 0.99173903 0.015553209
-0.19118026 0.70964313 0.0046871151 28 33 19 -0.10299899 -0.069604084 0.99224305 0.01562244
-0.18173511 0.70986968 0.0061294497 29 34 20 -0.099838473 -0.068972759 0.99260998 0.015706742
-0.17145392 0.71127754 0.014498544 26 31 17 -0.094192617 -0.068548106 0.99319112 0.015890174
-0.16216961 0.7113359 0.014954095 28 33 19 -0.088080287 -0.067887031 0.9937973 0.016102767
-0.15300637 0.71122545 0.014420068 32 35 21 -0.080898575 -0.067124754 0.99445939 0.01636219
-0.14429325 0.71043968 0.0099262139 27 30 16 -0.073201649 -0.067018613 0.99506265 0.016577423
-0.13511865 0.71032912 0.0093915239 25 30 16 -0.064848348 -0.066316999 0.99568892 0.016902398
-0.12594403 0.71021855 0.0088568348 25 30 16 -0.055412482 -0.066008426 0.99627906 0.017009687
-0.11697741 0.70977014 0.0063414755 24 30 13 -0.046012331 -0.065053061 0.99682027 0.017213531
-0.1082017 0.7089836 0.0018439746 26 32 15 -0.035723656 -0.064568438 0.99727345 0.017437387
-0.099894777 0.70735174 -0.0076081837 23 28 14 -0.025678992 -0.064732134 0.997572 0.017506963
-0.090677507 0.70724064 -0.0081453593 27 32 18 -0.0153739 -0.064355701 0.9978084 0.017657273
-0.081367627 0.70729864 -0.0076915366 28 33 21 -0.0048601865 -0.063839942 0.99794817 0.017886769
-0.07224296 0.70701849 -0.0092197116 28 31 19 0.0061465739 -0.063810736 0.99794292 0.017914187
-0.063634202 0.7057234 -0.016696669 27 30 16 0.017201472 -0.063954115 0.99780446 0.017931134
-0.055153806 0.70408946 -0.026159177 25 28 16 0.028055608 -0.064289577 0.99753666 0.017908283
-0.045891032 0.70397782 -0.026699005 23 28 16 0.040030371 -0.064348236 0.99712408 0.017978506
-0.035922673 0.70538944 -0.018311678 22 27 15 0.05193257 -0.064567298 0.99656093 0.018072251
-0.026383279 0.70595533 -0.014881807 25 30 18 0.064026386 -0.064977661 0.99583042 0.017985171
-0.016793936 0.70669073 -0.010458452 25 30 18 0.074182138 -0.065226793 0.99510914 0.017989065
-0.0075124768 0.70674908 -0.010002734 28 31 19 0.085627809 -0.065546617 0.99416852 0.017940881
0.0019643451 0.70731568 -0.0065692174 26 31 19 0.097017147 -0.066697575 0.99304527 0.017702691
0.011482592 0.70805192 -0.0021417183 28 33 21 0.10889248 -0.067698374 0.99174547 0.017510934
0.020972412 0.70878857 0.0022876761 29 34 22 0.12049884 -0.068459079 0.99034995 0.017246803
0.03019982 0.70884758 0.0027463054 27 32 20 0.13014609 -0.069710501 0.98904097 0.016963517
0.039588481 0.7094152 0.0061849602 31 36 22 0.14107057 -0.071176231 0.98743755 0.016685326
0.049007203 0.71015269 0.010618499 29 34 20 0.1509902 -0.072078899 0.98590386 0.016526505
0.058397468 0.71089053 0.015053456 30 35 23 0.16182742 -0.073610172 0.98406959 0.016171614
0.067523733 0.71078056 0.014521583 31 36 24 0.16918892 -0.074735597 0.98274583 0.015976019
0.07669428 0.71084023 0.014983764 31 36 24 0.17846848 -0.076542422 0.98096383 0.015570447
0.085817695 0.71073031 0.014452058 31 38 27 0.18555976 -0.077927612 0.97953796 0.015321765
0.094863944 0.7102809 0.01193182 31 37 29 0.19162111 -0.078734212 0.9783057 0.01515936
0.10381436 0.70932204 0.00642798 33 39 31 0.19613491 -0.07985764 0.97731954 0.014883465
0.11285901 0.7087025 0.0029114387 32 38 30 0.20142777 -0.080669746 0.97617567 0.014739404
0.12186062 0.70774299 -0.0025956216 29 37 29 0.20603181 -0.081621617 0.97513509 0.014607371
0.13099949 0.70746273 -0.0041246251 33 41 34 0.20995855 -0.082279213 0.97424191 0.014430282
0.13992478 0.70565319 -0.014609455 35 43 36 0.21256763 -0.082772426 0.97363412 0.014271484
0.14890696 0.703843 -0.025097599 36 44 37 0.21428014 -0.083642982 0.97318417 0.014211668
0.15785263 0.70118225 -0.040566072 39 46 42 0.21747042 -0.084559761 0.97239703 0.014160365
0.16688363 0.69852048 -0.056039277 46 55 57 0.21960914 -0.085820347 0.97180569 0.014015138
-0.23275903 0.69505197 -0.026450207 9 16 18 -0.11200994 -0.074129477 0.99093807 0.015232421
-0.2215707 0.69733977 -0.013153132 27 35 28 -0.11013664 -0.073484354 0.99119604 0.015324835
-0.21085937 0.6991142 -0.0028173903 28 34 26 -0.10700419 -0.073162407 0.99156296 0.01538898
-0.20059946 0.7003749 0.0045557674 29 34 20 -0.10420094 -0.072887748 0.99188167 0.01547154
-0.1907654 0.70112163 0.0089643709 29 34 20 -0.10100988 -0.073046386 0.99220008 0.015517115
-0.18133155 0.70135403 0.010407406 30 35 21 -0.098002717 -0.072668374 0.99252933 0.015609789
-0.17178801 0.70175815 0.012840347 26 31 17 -0.093007609 -0.072609946 0.99301416 0.015715115
-0.16261622 0.70164764 0.012305822 28 31 17 -0.08746545 -0.07247597 0.99352741 0.015878538
-0.15332906 0.70170879 0.01276087 28 31 17 -0.083456837 -0.072208695 0.9938916 0.015928803
-0.1444978 0.70108318 0.0092570595 30 33 19 -0.073576532 -0.072007984 0.99468642 0.016122408
-0.13564949 0.70045745 0.0057522543 25 30 16 -0.065689176 -0.071508162 0.99527442 0.01634278
-0.12667723 0.70000327 0.0032365236 28 33 19 -0.058130022 -0.071077265 0.99577546 0.016556362
-0.11779761 0.69937712 -0.00026986696 26 32 15 -0.04857032 -0.070695944 0.99631464 0.016687896
-0.1086986 0.69909441 -0.0017966887 24 30 13 -0.038546361 -0.070082083 0.99679601 0.016813755
-0.099987201 0.69812423 -0.0072861086 24 29 15 -0.026494402 -0.070003614 0.99719471 0.017003516
-0.09096092 0.69766933 -0.0098049883 22 27 13 -0.015848357 -0.069653615 0.99744511 0.017208539
-0.082108542 0.69687051 -0.014306327 23 28 16 -0.005864447 -0.069355063 0.99757463 0.017259154
-0.073323235 0.69589943 -0.019800296 25 30 18 0.0052800309 -0.069536634 0.99756527 0.017251756
-0.064770341 0.69441205 -0.028269611 24 29 17 0.016467601 -0.069618903 0.99743754 0.017376006
-0.056171946 0.69292402 -0.036741577 23 29 12 0.027746489 -0.07006979 0.9971559 0.017341731
-0.046959165 0.69264001 -0.03827503 21 29 12 0.040649522 -0.070531793 0.99668074 0.017380157
-0.036877997 0.69424891 -0.028898859 24 31 20 0.053243242 -0.070298329 0.99610388 0.017472085
-0.027156038 0.69517004 -0.023487184 23 30 19 0.063748933 -0.070415311 0.99547851 0.017490251
-0.017249988 0.69660807 -0.015097108 25 30 18 0.075372495 -0.070525363 0.99465817 0.017498482
-0.0077446126 0.6971857 -0.011665645 26 31 17 0.088582873 -0.071237624 0.99351799 0.017406072
0.0017380147 0.69776362 -0.0082328571 24 29 15 0.10054924 -0.071981452 0.99232465 0.017219739
0.011069482 0.69799727 -0.0067838538 26 31 17 0.11213052 -0.07298553 0.99100941 0.016927442
0.020573651 0.69874793 -0.0023560228 26 31 19 0.12240931 -0.074068181 0.98971182 0.016681498
0.02999088 0.69932663 0.0010808154 28 33 21 0.13486902 -0.075137705 0.98801035 0.01640141
0.039329674 0.69973326 0.003525689 26 31 19 0.1458542 -0.076507121 0.9863432 0.016055729
0.048757054 0.70048487 0.0079579949 29 34 20 0.15648633 -0.077930316 0.98460072 0.015713252
0.058106013 0.70106435 0.011398573 30 35 23 0.16539843 -0.079117306 0.98304802 0.015430029
0.067290805 0.70112675 0.011859826 30 35 23 0.17509091 -0.080608428 0.98124671 0.015111765
0.076558486 0.70153421 0.014308605 33 38 26 0.183171 -0.081740186 0.97967678 0.014869764
0.085809119 0.70194185 0.016758617 33 40 29 0.18779339 -0.08225593 0.97875798 0.014800434
0.094926849 0.701832 0.016227242 30 36 28 0.19435231 -0.083149515 0.97740114 0.014639429
0.10382999 0.70068645 0.0097303474 35 41 33 0.19872263 -0.084207915 0.97643131 0.014471793
0.11276724 0.6995405 0.0032312279 32 38 30 0.20292909 -0.084899135 0.97550583 0.014375695
0.12173862 0.69839412 -0.0032698817 30 38 30 0.20501085 -0.085418999 0.97502506 0.014280355
0.13079861 0.69759274 -0.0077833203 34 42 35 0.20891969 -0.085687689 0.9741714 0.014250734
0.139735 0.69575459 -0.01826782 34 42 35 0.21128294 -0.086261258 0.97361082 0.01412159
0.1487067 0.69374299 -0.029750913 33 41 34 0.21326837 -0.08700785 0.97311151 0.014068064
0.15762877 0.69069374 -0.04720914 39 46 42 0.21553262 -0.088252626 0.97250038 0.013911473
0.1666158 0.68729758 -0.066663988 46 55 57 0.21830967 -0.08941596 0.97177434 0.013900925
-0.23368131 0.68470228 -0.032054808 2 11 13 -0.1086549 -0.077385299 0.9910627 0.015155466
-0.22234015 0.68720394 -0.017771807 23 31 24 -0.1052931 -0.077021256 0.99145395 0.015179937
-0.21121682 0.6895324 -0.004472075 27 33 25 -0.10322182 -0.076160729 0.99173808 0.015289176
-0.20043245 0.69151318 0.0068545341 33 38 26 -0.10070964 -0.075908154 0.99201572 0.015360695
-0.19009669 0.69297165 0.01521869 29 34 20 -0.096989915 -0.075946614 0.99238336 0.015362245
-0.18055589 0.69338435 0.017651498 25 30 16 -0.094564207 -0.076295167 0.99259073 0.015395588
-0.17127439 0.69344836 0.018106777 27 32 18 -0.091275059 -0.07617747 0.99290758 0.015444357
-0.16258994 0.69264019 0.013615615 29 32 20 -0.084774494 -0.076953687 0.99342388 0.015435908
-0.153421 0.69252968 0.013081256 30 33 21 -0.080722697 -0.076768681 0.99377561 0.015452123
-0.14492759 0.69137198 0.0066085886 29 32 20 -0.074497476 -0.076767385 0.99426192 0.015579237
-0.13585132 0.69108671 0.0050834301 27 32 20 -0.066618726 -0.076552406 0.99483734 0.015718875
-0.12709008 0.69027758 0.00058779283 26 31 19 -0.058415592 -0.076375566 0.99536633 0.015900204
-0.11820202 0.68964279 -0.0029190348 29 34 20 -0.04856845 -0.076240703 0.99590564 0.016035622
-0.1090945 0.6893571 -0.0044462532 27 32 18 -0.038617533 -0.075730674 0.99638003 0.016256025
-0.10007963 0.68889672 -0.0069640349 26 31 17 -0.028752713 -0.075629979 0.99672121 0.016371675
-0.090957887 0.68861091 -0.0084920824 24 29 15 -0.016766489 -0.074978173 0.99704397 0.01658476
-0.082386494 0.68727636 -0.015965493 27 32 18 -0.0061609838 -0.074928336 0.99716979 0.016709188
-0.074134603 0.68524212 -0.027405323 23 28 16 0.0058292621 -0.074973941 0.99716824 0.016771991
-0.066081122 0.68268257 -0.04182243 26 31 17 0.016390514 -0.075922422 0.99697888 0.016654106
-0.057695575 0.68064672 -0.053270288 27 35 28 0.026156634 -0.076881953 0.99669683 0.016639479
-0.048515756 0.68018436 -0.055797681 97 104 107 0.040387187 -0.077194087 0.99619758 0.016713491
-0.037912387 0.68287081 -0.040475246 247 255 252 0.052768264 -0.076141544 0.99569958 0.016816234
-0.027702473 0.6848585 -0.029115155 6 13 9 0.065642342 -0.075968929 0.99494696 0.016901428
-0.017851871 0.68614697 -0.021718927 24 32 24 0.077505067 -0.076331668 0.9940654 0.016843697
-0.008256549 0.68691075 -0.017296895 26 31 20 0.091472574 -0.077089168 0.99281913 0.016728753
0.0012432536 0.68749988 -0.0138655 28 31 17 0.10386607 -0.077735111 0.99154866 0.016553974
0.010656075 0.68791407 -0.011425233 30 34 17 0.11556748 -0.079036489 0.99015003 0.016348526
0.020297395 0.68902916 -0.0050132461 27 32 18 0.12830307 -0.079543144 0.98853981 0.016074214
0.029781813 0.6897943 -0.00058451423 28 33 19 0.13861758 -0.080701873 0.98705214 0.01579565
0.039182078 0.69038463 0.0028526834 30 35 23 0.14972316 -0.081985727 0.98532277 0.015466758
0.048506737 0.69079995 0.0052980874 28 33 21 0.15936552 -0.082897924 0.98373282 0.015222272
0.057964373 0.69174129 0.01072458 29 34 23 0.1703542 -0.08444453 0.98175782 0.014777881
0.067199208 0.69198179 0.012179019 29 34 23 0.17751129 -0.085381478 0.98040777 0.014568747
0.076422654 0.69222242 0.013633884 34 39 28 0.18293765 -0.0859586 0.97935927 0.014507515
0.085551761 0.69211245 0.013101845 33 40 29 0.18929413 -0.086884804 0.97806865 0.014324127
0.094603598 0.69165158 0.010581911 28 35 24 0.19327655 -0.08714658 0.97726625 0.014281468
0.10355941 0.69066417 0.0050784945 31 37 29 0.1973369 -0.087957025 0.97638172 0.014183523
0.11257661 0.68985194 0.00056793995 31 39 31 0.20167819 -0.088373102 0.97545671 0.014114529
0.12161658 0.68903947 -0.0039439416 31 39 32 0.20358784 -0.088463493 0.9750517 0.014142334
0.13065203 0.6880511 -0.0094519975 29 37 30 0.20732357 -0.088888459 0.97422552 0.014085916
0.1395694 0.68600887 -0.020930612 33 41 34 0.2097657 -0.089641899 0.97363365 0.013926672
0.14861405 0.68449271 -0.029428042 33 41 34 0.21169291 -0.089852944 0.97319686 0.013925649
0.15749818 0.68104374 -0.048874795 38 45 41 0.21417369 -0.090986297 0.9725486 0.013843545
0.16645858 0.67724204 -0.07031887 32 41 43 0.215937 -0.092280075 0.9720366 0.013810796
-0.23405106 0.67502666 -0.03370579 31 40 42 -0.10272504 -0.080620617 0.99143708 0.014999688
-0.22202702 0.67845654 -0.014483065 28 35 31 -0.10070822 -0.080107883 0.99168563 0.015076777
-0.21104434 0.68064779 -0.0021728443 28 34 27 -0.098500326 -0.079399347 0.9919644 0.01512195
-0.20039496 0.68248558 0.0081643593 28 33 22 -0.095850229 -0.079216965 0.99223846 0.015219329
-0.19056913 0.68326092 0.012572704 28 33 22 -0.092665404 -0.079632096 0.99250776 0.015262682
-0.1811437 0.68350476 0.01401584 27 32 21 -0.088501215 -0.079990305 0.99285889 0.015207376
-0.17185079 0.68357158 0.014470357 25 30 19 -0.084192716 -0.080333278 0.9932059 0.015191942
-0.16280016 0.68328375 0.012946792 27 29 19 -0.080696888 -0.080603346 0.99347419 0.015144867
-0.15351294 0.68335056 0.013401641 26 28 18 -0.075320497 -0.080921672 0.99387026 0.015152869
-0.1450197 0.68217582 0.0069295699 28 33 22 -0.069889091 -0.08148852 0.99422079 0.01515897
-0.13583371 0.68206507 0.0063942168 26 31 20 -0.064161345 -0.081512988 0.99460483 0.015207437
-0.12696849 0.68142205 0.0028890129 24 29 17 -0.056610901 -0.081472598 0.99506634 0.015314557
-0.11808621 0.6807788 -0.00061718532 27 32 20 -0.047936261 -0.081350841 0.99553192 0.015425773
-0.10918687 0.68013531 -0.0041243779 24 29 15 -0.038427338 -0.081122145 0.99596292 0.015594091
-0.10007367 0.67984676 -0.0056515918 27 32 18 -0.029512504 -0.080654882 0.99630493 0.015752673
-0.091336966 0.67884779 -0.01114151 28 33 19 -0.018580616 -0.080544427 0.99657768 0.015840089
-0.083035372 0.67696041 -0.021587299 26 31 17 -0.00633393 -0.080743648 0.99671459 0.015932638
-0.074946441 0.67453933 -0.035008762 27 33 16 0.0048704725 -0.081214786 0.99668461 0.015972693
-0.066870615 0.67193961 -0.049426038 26 34 17 0.015641548 -0.082104847 0.99650079 0.015893321
-0.058883481 0.66898358 -0.065830357 0 7 0 0.028172746 -0.083393499 0.99611825 0.015777305
-0.028476156 0.67397934 -0.037717018 57 67 66 0.067465566 -0.082224406 0.99432749 0.016126547
-0.018599739 0.67529017 -0.030323312 19 27 20 0.080259256 -0.082455784 0.99335754 0.016205603
-0.0088387765 0.67642373 -0.023918981 24 30 22 0.093796104 -0.08310385 0.99211687 0.016048029
0.00054684107 0.67666811 -0.022473525 31 34 20 0.10528501 -0.083438165 0.99093533 0.015987437
0.010113863 0.67744654 -0.018050333 30 34 17 0.119317 -0.084833965 0.98922509 0.015601832
0.019713875 0.67840332 -0.012632726 29 34 20 0.13192408 -0.085661285 0.98755145 0.01528959
0.029514058 0.68007261 -0.003242135 30 35 21 0.14302464 -0.086494267 0.98593223 0.015043348
0.038922969 0.68067414 0.00019416826 29 34 22 0.15491214 -0.088026114 0.9839986 0.014688255
0.04820336 0.68091983 0.0016457558 26 31 19 0.16232184 -0.088652983 0.98274714 0.014559584
0.057722591 0.68205625 0.008064175 28 33 22 0.17110614 -0.089494668 0.98117942 0.014230411
0.06710761 0.68283689 0.012498211 30 35 24 0.17721172 -0.090114966 0.98003823 0.014117491
0.076375462 0.68326139 0.014946395 29 36 25 0.18270209 -0.090256043 0.9790166 0.013982616
0.085377201 0.68261671 0.011433473 33 40 29 0.1873202 -0.090857707 0.97808784 0.013844624
0.094395995 0.68197185 0.007919318 28 35 24 0.19168313 -0.091322355 0.97719884 0.013824017
0.10343185 0.68132669 0.0044041695 32 38 30 0.19465391 -0.091226742 0.97662032 0.013838371
0.11238582 0.6801464 -0.0020947531 30 36 29 0.19856183 -0.091887631 0.97577131 0.013813053
0.1214342 0.67932236 -0.0066067334 30 38 31 0.2011297 -0.092082232 0.97522682 0.013834277
0.13047802 0.67831969 -0.01211479 31 39 32 0.20456575 -0.09222465 0.97449839 0.013853009
0.13952586 0.67713821 -0.018619182 33 39 32 0.20719431 -0.092474706 0.97391921 0.013842704
0.14852139 0.67524242 -0.029105173 31 39 32 0.20838204 -0.092880391 0.97362721 0.013784938
0.15738621 0.67156082 -0.049545284 37 44 40 0.21120064 -0.093772762 0.97293401 0.01372451
0.16636479 0.66787785 -0.069992028 28 35 37 0.21289895 -0.094887763 0.97245568 0.013682376
-0.24628288 0.66221404 -0.052594341 243 254 255 -0.097206131 -0.084000565 0.99171293 0.0148445
-0.23428276 0.6655196 -0.034368183 29 38 41 -0.095638573 -0.083713003 0.9918896 0.014853958
-0.22306761 0.66792667 -0.021076776 31 38 34 -0.094125688 -0.083067663 0.99208862 0.014850916
-0.21206465 0.67015469 -0.0087690074 25 33 26 -0.091204993 -0.083049439 0.99236292 0.014931187
-0.20113564 0.67238361 0.0035430719 28 35 24 -0.087803245 -0.083007671 0.99267322 0.014908004
-0.1909149 0.67371315 0.010915928 32 37 26 -0.085818872 -0.08346279 0.99280852 0.015033303
-0.18111165 0.67450291 0.015325101 27 32 21 -0.081845216 -0.0834684 0.99314356 0.015045923
-0.17170039 0.67475271 0.016768867 29 34 23 -0.076595873 -0.084127799 0.99350649 0.015053527
-0.16289213 0.67410183 0.013267276 29 31 21 -0.073196687 -0.084685504 0.99371541 0.015009608
-0.15383586 0.67381108 0.011743241 29 31 21 -0.068330988 -0.085158005 0.99402153 0.014934687
-0.14522444 0.67279935 0.0062611117 29 31 21 -0.064981483 -0.085567735 0.9942109 0.014865682
-0.13603559 0.6726886 0.0057255924 27 32 20 -0.058040123 -0.086070322 0.9945969 0.014787422
-0.12716764 0.67203701 0.002220521 30 35 23 -0.052767042 -0.086326577 0.99486834 0.01480087
-0.11828259 0.67138517 -0.0012855453 27 32 20 -0.046834961 -0.086681582 0.99513429 0.014821709
-0.10968429 0.67019206 -0.0077631529 27 32 18 -0.038156819 -0.086466163 0.99552369 0.014943521
-0.10105184 0.66899854 -0.014242751 28 33 21 -0.028400071 -0.086340576 0.99586064 0.015123354
-0.092480861 0.66762418 -0.021714771 25 30 18 -0.017976332 -0.086450219 0.99609387 0.015106115
-0.084055513 0.66588831 -0.031170551 27 32 20 -0.0057632765 -0.086784795 0.99621028 0.015119126
-0.075758748 0.66379088 -0.042610846 24 32 17 0.0047977385 -0.087376349 0.99616367 0.015061104
-0.068008721 0.66042894 -0.060991786 23 32 20 0.017507017 -0.088413574 0.99592984 0.015062347
-0.060745727 0.65580177 -0.086317092 34 40 47 0.02844662 -0.090747774 0.99546742 0.014869597
-0.019275296 0.66456294 -0.037933908 2 10 7 0.082458317 -0.088907368 0.99262065 0.015293696
-0.0094913794 0.66571617 -0.031531602 21 29 22 0.09694545 -0.08939407 0.99126685 0.015221305
5.1313749e-005 0.66632748 -0.028103486 26 31 19 0.11084116 -0.090327509 0.9897247 0.014987104
0.0096355397 0.66711992 -0.023681786 27 30 16 0.12384456 -0.091059312 0.98811454 0.014821984
0.019252786 0.66809356 -0.018265769 24 29 17 0.13464163 -0.091574021 0.98665375 0.014667719
0.028953118 0.66942936 -0.010862345 26 31 19 0.14567988 -0.092628688 0.98498583 0.014285134
0.038663689 0.6709466 -0.0024637512 27 32 20 0.15626281 -0.093350016 0.98329419 0.013969731
0.04805851 0.67155975 0.00097322057 29 34 23 0.16224323 -0.09364707 0.98229682 0.013891293
0.057680916 0.67307812 0.0093769515 31 36 25 0.16947435 -0.094164602 0.98102558 0.013885103
0.067110464 0.67405403 0.014803908 30 37 26 0.17566179 -0.094366752 0.97991717 0.013833609
0.076239571 0.673944 0.014271869 29 36 25 0.18003096 -0.094499387 0.97911096 0.013746046
0.085244052 0.67329067 0.010758844 28 35 24 0.1832376 -0.094305061 0.97853476 0.013718759
0.094149508 0.67209387 0.0042633354 29 36 25 0.18672691 -0.094878666 0.97781944 0.013629192
0.10326837 0.6718024 0.00273589 29 36 25 0.19069937 -0.094536014 0.97708559 0.013603618
0.11226088 0.67078608 -0.0027684483 32 38 30 0.19376671 -0.095153801 0.97642201 0.013550375
0.12134214 0.67013192 -0.0062859515 28 36 29 0.19735789 -0.094961867 0.97572118 0.013548498
0.13038583 0.66911501 -0.011793511 36 42 35 0.20018399 -0.095202021 0.97512186 0.013604959
0.13940902 0.66773516 -0.019291885 36 42 35 0.20187749 -0.095208235 0.97477216 0.013535895
0.14838549 0.66562957 -0.030771794 37 44 40 0.20486958 -0.095644839 0.97410476 0.013553635
0.15729299 0.66225362 -0.049220428 36 43 39 0.20788629 -0.096450299 0.97338599 0.013562031
0.16636667 0.65960211 -0.063694254 26 35 37 0.20957614 -0.097592682 0.97290963 0.013526039
-0.24919902 0.64917529 -0.072021894 243 253 255 -0.08797498 -0.088303268 0.99220091 0.014764053
-0.23548232 0.6547274 -0.041946039 32 38 45 -0.086520284 -0.087224774 0.99242425 0.014723024
-0.22397318 0.65753967 -0.026681079 28 36 29 -0.085340902 -0.086460687 0.99259317 0.014758472
-0.21282022 0.65998739 -0.013387417 28 34 27 -0.08364293 -0.086252607 0.99275577 0.014730207
-0.20174688 0.66243601 -8.8873887e-005 31 38 27 -0.080758102 -0.086406693 0.99298114 0.014815609
-0.19126073 0.66415399 0.0092597846 31 36 25 -0.076426812 -0.086859524 0.99328452 0.014724378
-0.18132763 0.66514093 0.014656808 25 29 21 -0.071911447 -0.087381311 0.99357581 0.014654405
-0.17191347 0.66539633 0.016099973 27 31 23 -0.068713024 -0.087614715 0.99378169 0.014688886
-0.1627474 0.66528583 0.01556578 26 31 20 -0.064120829 -0.088213056 0.99403566 0.014632662
-0.15381235 0.66480935 0.013053237 30 35 24 -0.05853064 -0.088828892 0.99432552 0.014601382
-0.14509125 0.66396648 0.0085608745 29 34 23 -0.055980846 -0.089222193 0.99443716 0.014579888
-0.13656704 0.66275716 0.0020884085 29 34 22 -0.050854374 -0.090003252 0.99464202 0.014449218
-0.12768777 0.66209692 -0.0014170286 26 31 19 -0.04704719 -0.090385012 0.99479485 0.014409109
-0.11879145 0.66143638 -0.0049234587 30 35 23 -0.040138751 -0.091034874 0.99503821 0.014333548
-0.11018194 0.66022599 -0.011401134 29 34 20 -0.033418003 -0.091427498 0.9952507 0.014215847
-0.10183364 0.65846556 -0.020851545 25 30 18 -0.026482668 -0.092298262 0.99537897 0.014014007
-0.093242936 0.65707093 -0.028324028 24 29 17 -0.015986148 -0.092033148 0.9956274 0.014165928
-0.084612422 0.65567595 -0.035798833 24 29 18 -0.0049927016 -0.092543259 0.99569601 0.014258943
-0.076121919 0.65391368 -0.045257531 27 33 26 0.0057218112 -0.093037471 0.99564594 0.014318731
-0.068189748 0.65086716 -0.061655518 26 33 29 0.017871421 -0.094648317 0.99535018 0.014139101
-0.01973276 0.6543408 -0.042567935 8 16 13 0.085605294 -0.09552519 0.99173909 0.014152965
-0.0097943982 0.65588093 -0.034183256 24 32 25 0.098384909 -0.096015207 0.99050552 0.014044802
-0.00024306319 0.65650356 -0.030756038 26 31 20 0.11247502 -0.096500672 0.98895741 0.013907757
0.009414169 0.65749383 -0.025342936 28 33 21 0.12436052 -0.096913792 0.98749268 0.013830082
0.018975787 0.65830076 -0.020920407 26 31 19 0.13700975 -0.097849891 0.98572481 0.013657879
0.028567608 0.6592918 -0.015503494 30 35 23 0.14630988 -0.0981002 0.98436248 0.013553402
0.038236886 0.66065073 -0.0080990419 25 30 18 0.15361607 -0.098136082 0.98324513 0.013417043
0.047807705 0.66182643 -0.0016849966 23 30 18 0.160225 -0.098023109 0.9822011 0.013390954
0.057489011 0.66355407 0.0077105677 26 33 22 0.1653749 -0.098058067 0.98134369 0.013377667
0.066924416 0.66454703 0.013136597 29 36 25 0.17001094 -0.097728044 0.98058408 0.013443193
0.076059207 0.66443694 0.012604227 30 35 24 0.17399561 -0.097685955 0.97988915 0.013462175
0.085110866 0.66395897 0.01008465 31 38 26 0.17779969 -0.097571753 0.97921735 0.01348154
0.093980275 0.66256106 0.0025959231 28 35 24 0.1819478 -0.097804606 0.97843182 0.013422039
0.10321242 0.66281867 0.0040496932 29 36 25 0.18459798 -0.097706482 0.97794515 0.013465417
0.11223497 0.66197222 -0.00046000007 30 36 28 0.18840629 -0.097945049 0.97719479 0.01343788
0.12128028 0.66112548 -0.0049710213 31 37 30 0.19180138 -0.097911239 0.97653741 0.013403841
0.13026629 0.65972614 -0.012466543 32 38 31 0.19427446 -0.098017856 0.97603768 0.013315555
0.13924311 0.65795809 -0.021953585 39 45 38 0.19741659 -0.098193586 0.97538936 0.013365887
0.14824945 0.6560052 -0.032438252 33 40 36 0.20024146 -0.09866377 0.97476584 0.013383851
0.15716214 0.652578 -0.050885193 36 43 39 0.2020334 -0.099429771 0.97431821 0.013280944
0.16624109 0.64988649 -0.065358199 25 32 34 0.20465697 -0.10025235 0.97368616 0.013370001
-0.25197515 0.63620824 -0.090457894 243 252 255 -0.076020762 -0.092903629 0.99276859 0.014662246
-0.23529938 0.64574587 -0.039643854 32 40 39 -0.077891357 -0.090288997 0.99286479 0.014605968
-0.22447275 0.64767551 -0.029320208 28 34 27 -0.07584212 -0.090059802 0.99304438 0.01453669
-0.21357606 0.6497916 -0.018004594 31 35 27 -0.072247617 -0.090181299 0.99330127 0.014514445
-0.20235835 0.65246564 -0.0037200253 31 36 25 -0.07007812 -0.090073191 0.99346644 0.014504481
-0.1914798 0.65476918 0.0085922154 31 36 25 -0.066945583 -0.090533637 0.9936406 0.014462462
-0.18117146 0.65633053 0.01695445 30 35 24 -0.062069695 -0.090874866 0.99392587 0.01449101
-0.17176291 0.65659171 0.018397983 28 33 22 -0.059029534 -0.091028258 0.99409717 0.014381448
-0.16260254 0.65648133 0.017864123 31 34 22 -0.05516696 -0.091686659 0.9942584 0.014245386
-0.15390432 0.65562737 0.013373721 28 31 19 -0.050960898 -0.09210147 0.99444455 0.01422865
-0.14518334 0.65477318 0.0088817552 32 35 21 -0.04617878 -0.092886828 0.99460506 0.014126598
-0.13698886 0.65298891 -0.0005585727 27 32 18 -0.041666258 -0.093539938 0.99474323 0.013969554
-0.12842216 0.65176201 -0.007033166 24 29 15 -0.036642589 -0.094343111 0.99486506 0.013818152
-0.11982135 0.65053463 -0.013509747 28 33 19 -0.031374492 -0.095183477 0.99496508 0.01368648
-0.11088246 0.64986509 -0.017018365 28 34 17 -0.025817245 -0.095888428 0.99505705 0.013587754
-0.10232039 0.64845091 -0.024488498 29 34 20 -0.018061766 -0.09672045 0.99514753 0.013430823
-0.093527257 0.64740855 -0.029980477 26 31 17 -0.010213274 -0.097499594 0.99518299 0.013356357
-0.084891245 0.64599353 -0.037454918 26 31 17 -0.0029036966 -0.098259412 0.99515647 0.013282826
-0.07639531 0.64420563 -0.046912815 26 32 25 0.0092791673 -0.099177726 0.99502629 0.013281022
-0.068545006 0.6409272 -0.064300515 25 32 29 0.020659182 -0.1009845 0.99467325 0.013105785
-0.010447785 0.64509642 -0.041793432 25 33 26 0.10038559 -0.10253453 0.98965102 0.012841055
-0.00073919108 0.64610314 -0.036383912 28 33 22 0.11400048 -0.10299727 0.98812705 0.01273312
0.0091926698 0.64785624 -0.027003925 28 33 19 0.12490946 -0.10316566 0.98678982 0.012602414
0.018698618 0.64849085 -0.023574449 29 34 22 0.1338795 -0.10316205 0.98561335 0.012644465
0.028240485 0.64931226 -0.019151021 30 35 23 0.14097111 -0.10298858 0.98464209 0.012739754
0.038032994 0.65106708 -0.0097629139 29 36 24 0.14873013 -0.10227703 0.98357439 0.012894036
0.047768619 0.65282261 -0.00037149343 28 35 23 0.15318182 -0.10160981 0.9829601 0.013007918
0.057497494 0.65476549 0.010016131 28 35 24 0.1587007 -0.10139217 0.98210663 0.013062507
0.066832818 0.65540212 0.013455789 25 32 21 0.16291516 -0.10098622 0.98145813 0.013079129
0.07596761 0.65529203 0.012923419 30 35 24 0.16683318 -0.10107411 0.98079067 0.01305224
0.085019208 0.6548084 0.010404042 27 34 23 0.1710007 -0.10081917 0.98009902 0.013122384
0.094004683 0.65395093 0.0058969008 29 36 25 0.17548339 -0.1007821 0.97931004 0.013142374
0.10308471 0.653467 0.0033758653 32 37 26 0.17872997 -0.10073557 0.97872758 0.013235907
0.11217614 0.65298283 0.00085440552 33 37 29 0.18237303 -0.10089911 0.97803837 0.013177286
0.12124871 0.65231168 -0.0026620037 32 38 31 0.18561535 -0.10085819 0.97743249 0.013234074
0.13028358 0.6512664 -0.0081680724 33 39 32 0.18898018 -0.10094869 0.97677809 0.013266083
0.13917516 0.64891189 -0.020636931 35 41 34 0.19144233 -0.10099211 0.9762941 0.013230385
0.14811331 0.64636952 -0.034104314 36 43 39 0.19423029 -0.10164561 0.97567534 0.013191321
0.15699346 0.64251685 -0.054539457 36 43 39 0.19639397 -0.1025188 0.97515082 0.013130588
0.16606741 0.63959831 -0.070006371 31 38 40 0.19861424 -0.10336009 0.97461212 0.013179182
-0.23566967 0.63602191 -0.041293144 29 36 35 -0.066896915 -0.093646593 0.99335533 0.014408996
-0.22483701 0.63798279 -0.030970685 27 36 17 -0.064622037 -0.093420312 0.99352729 0.014372038
-0.21380165 0.64032149 -0.018668614 31 36 25 -0.062284674 -0.093309022 0.99368691 0.01427783
-0.20245089 0.64322674 -0.0033975532 26 31 19 -0.059440468 -0.093461923 0.99384671 0.014210218
-0.19169889 0.64537877 0.0079250811 28 33 21 -0.056707904 -0.093772598 0.99397713 0.014201342
-0.18151157 0.64677703 0.015297778 28 33 21 -0.053286958 -0.09387064 0.99415714 0.014143392
-0.17197604 0.64723247 0.017729426 29 34 22 -0.048811134 -0.094520062 0.99432546 0.014009686
-0.16257598 0.6474995 0.01917302 31 34 20 -0.044216286 -0.095167734 0.99447858 0.013957809
-0.15376514 0.64682293 0.015672158 30 33 19 -0.040347088 -0.095708355 0.99459118 0.013834607
-0.14550085 0.64520228 0.007224353 30 33 19 -0.034405008 -0.096793972 0.99470955 0.013708187
-0.13730095 0.64339232 -0.0022156504 29 32 18 -0.030985529 -0.097280793 0.99477434 0.013575065
-0.12872876 0.64214826 -0.0086899772 28 33 19 -0.025515873 -0.098163389 0.99484307 0.013439534
-0.12001823 0.64109266 -0.014176417 26 31 17 -0.018382102 -0.099446677 0.99487293 0.0132533
-0.11107656 0.64041448 -0.017684903 30 35 21 -0.014535733 -0.10025443 0.99485546 0.013113083
-0.10231486 0.63935828 -0.023174563 30 33 19 -0.0081144422 -0.10119081 0.99483377 0.01292369
-0.093811676 0.63773477 -0.03163629 29 32 20 -0.001452914 -0.10271 0.99471015 0.012657378
-0.085263014 0.63611072 -0.04010091 27 31 23 0.0082049044 -0.10429162 0.99451274 0.012392197
-0.076938748 0.633919 -0.051539581 25 31 24 0.017672662 -0.10622763 0.99418461 0.012131572
-0.068464793 0.63191557 -0.061991267 6 13 10 0.028467339 -0.10739265 0.99380893 0.011978707
-0.026991662 0.61734629 -0.13809618 33 40 39 0.084460519 -0.11873093 0.98932755 0.010196837
-0.011732209 0.63256288 -0.058327146 28 33 29 0.1014889 -0.11033842 0.98869872 0.011510347
-0.001907879 0.63377535 -0.051929243 26 31 20 0.10975123 -0.10960241 0.98789763 0.011668785
0.0083272932 0.63631386 -0.03858459 28 33 21 0.11937119 -0.1084052 0.98691356 0.011784378
0.018298218 0.6382851 -0.028212149 28 33 21 0.12705998 -0.10766106 0.98603475 0.011964817
0.028265273 0.64044654 -0.016843529 29 34 22 0.1329283 -0.10666531 0.98536909 0.012201558
0.037773144 0.64128262 -0.012418846 31 36 24 0.13945475 -0.10607743 0.98453015 0.012320098
0.047517586 0.64306647 -0.0030289153 31 36 24 0.14395045 -0.10528573 0.98396796 0.012514668
0.057155002 0.64466149 0.0053715413 31 36 25 0.15083227 -0.10469049 0.98300022 0.012637787
0.066551954 0.64549887 0.0098026907 30 35 24 0.15598567 -0.10429323 0.98223776 0.012836803
0.075742602 0.64557827 0.010263015 30 35 24 0.15972309 -0.10396457 0.98167181 0.012801511
0.084844299 0.64527845 0.0087366253 31 35 27 0.16309765 -0.10382956 0.98113108 0.012847876
0.093912914 0.64478892 0.0062166885 31 35 27 0.16736065 -0.10375563 0.98042083 0.012908865
0.10292102 0.64391989 0.0017086187 31 35 27 0.17157009 -0.1037692 0.97969151 0.012946045
0.11201806 0.64342999 -0.00081321236 28 34 26 0.17508066 -0.10377719 0.97906929 0.012987408
0.12112648 0.64293998 -0.0033357057 32 38 30 0.17804743 -0.10377683 0.97853416 0.012991674
0.13019146 0.64207023 -0.0078470912 32 38 31 0.18235792 -0.10373624 0.97774434 0.013063707
0.1390827 0.63968152 -0.020314757 33 39 32 0.18475287 -0.10398114 0.9772687 0.012962393
0.14786845 0.63577306 -0.040742446 34 42 35 0.18682928 -0.10478321 0.9767881 0.012905892
0.15671133 0.63129354 -0.064160831 37 45 38 0.18797393 -0.1058129 0.97645742 0.01291326
0.16573313 0.62738228 -0.084602274 44 51 47 0.19007511 -0.10666378 0.97595787 0.012987381
-0.23479488 0.62800831 -0.034053367 28 35 37 -0.056404583 -0.096716426 0.99371231 0.01420898
-0.22452384 0.62923539 -0.027681945 30 36 29 -0.053719837 -0.096702591 0.99386239 0.01410034
-0.21362934 0.63141978 -0.016368788 27 31 23 -0.051274184 -0.096542835 0.99400711 0.014013274
-0.20267324 0.63379645 -0.0040633678 26 31 17 -0.047952477 -0.096958928 0.99413246 0.013956952
-0.19217204 0.63559967 0.0052814819 28 33 19 -0.044992644 -0.097075351 0.99425942 0.013910521
-0.18234831 0.63644618 0.0096875085 26 31 17 -0.042209432 -0.09780746 0.99430972 0.013843207
-0.17291693 0.63671851 0.01112908 24 29 15 -0.037255947 -0.098388232 0.99445033 0.013686278
-0.1634969 0.63699096 0.012571552 29 34 20 -0.033968337 -0.098622486 0.99454492 0.013558628
-0.15431942 0.6368804 0.012036696 28 31 17 -0.028803471 -0.099567316 0.99461365 0.013403732
-0.14548025 0.63619488 0.0085344762 28 33 19 -0.023252511 -0.10047705 0.99466747 0.013274214
-0.13706362 0.63474262 0.0010741894 25 30 16 -0.016824249 -0.10146881 0.99469638 0.013077073
-0.12882133 0.6329065 -0.0083674053 29 34 20 -0.012159094 -0.10219739 0.9946897 0.012925789
-0.12021516 0.6316449 -0.014843126 28 33 19 -0.0060602352 -0.10327775 0.99463391 0.012759811
-0.11127076 0.63095826 -0.01835148 32 37 25 0.00090173463 -0.10499102 0.99447256 0.012512422
-0.10250632 0.62988776 -0.023840573 32 35 23 0.0076714032 -0.10622595 0.99431229 0.012275198
-0.094096228 0.62804961 -0.033291947 27 30 18 0.01482324 -0.10763688 0.99407953 0.011961522
-0.085820623 0.62582713 -0.044726707 26 32 25 0.023008214 -0.10956357 0.99371332 0.011674535
-0.077572472 0.62341201 -0.057155721 24 31 27 0.030521166 -0.11134662 0.9933126 0.01134411
-0.012526944 0.62127739 -0.067916304 28 34 27 0.094332367 -0.11539094 0.98883069 0.010546608
-0.0025394687 0.62289387 -0.059537131 26 31 20 0.10062466 -0.11437474 0.98832828 0.010807984
0.0077188397 0.62547183 -0.046195429 26 31 17 0.10838 -0.11296018 0.98767072 0.011058627
0.017774401 0.62766641 -0.034833141 27 32 18 0.1146144 -0.11158993 0.9871226 0.011325017
0.02793785 0.63043857 -0.020490302 26 31 19 0.1218325 -0.11075906 0.98635125 0.011537045
0.037513122 0.63148105 -0.015074182 28 33 21 0.12904559 -0.1099609 0.98552299 0.011797731
0.047266383 0.63329327 -0.0056857406 28 33 19 0.13524114 -0.10891546 0.98480809 0.012025808
0.056862403 0.63472146 0.0017206342 26 33 22 0.14081638 -0.10829348 0.98409504 0.012152866
0.066223539 0.63538057 0.0051577678 31 36 25 0.14475299 -0.10784112 0.98357338 0.01228946
0.075561918 0.63603991 0.0085962266 28 32 24 0.15027724 -0.10726026 0.98280805 0.012431032
0.084710933 0.63592964 0.0080630286 30 34 26 0.15481296 -0.10699986 0.98213226 0.012484593
0.094015181 0.63658947 0.011503478 30 36 28 0.16023371 -0.10677445 0.98128688 0.012621631
0.1028651 0.63493901 0.0030223231 29 35 27 0.16376536 -0.10684053 0.9806965 0.012612602
0.11182675 0.63367319 -0.0034741166 30 36 28 0.16724129 -0.10695505 0.98009735 0.012682146
0.12088309 0.63279212 -0.0079846056 34 40 32 0.17028758 -0.10717592 0.97954839 0.012680179
0.12998962 0.6321035 -0.011502408 34 40 32 0.17383873 -0.10691297 0.97895324 0.012721692
0.13896567 0.6302585 -0.020986766 37 43 36 0.17726843 -0.10685641 0.97834414 0.012745408
0.14773194 0.62610036 -0.042406976 39 47 40 0.17900945 -0.10762529 0.97794276 0.012690485
0.15661766 0.62194079 -0.063834384 40 48 41 0.17969313 -0.10853504 0.9777168 0.012694268
0.16565496 0.61816531 -0.083278924 42 50 43 0.18146926 -0.10940549 0.9772917 0.012746911
-0.23516509 0.61828721 -0.035702519 29 38 41 -0.042346232 -0.099679656 0.99411786 0.013956419
-0.22475266 0.61972827 -0.028344743 28 35 31 -0.039937053 -0.099865831 0.99419892 0.013839323
-0.21372227 0.62214106 -0.016044924 28 32 25 -0.039000135 -0.099833123 0.99423945 0.013766392
-0.20315535 0.62397194 -0.0067048823 30 35 21 -0.035556223 -0.10006823 0.99434489 0.013648123
-0.1928993 0.62541491 0.000662248 29 34 20 -0.032460425 -0.10062178 0.99439496 0.013541137
-0.18343373 0.62569255 0.0021016316 28 34 17 -0.027350742 -0.10124601 0.9944852 0.013398793
-0.17373689 0.62635899 0.0055190483 30 36 19 -0.023931455 -0.10194389 0.99450201 0.013237469
-0.16418128 0.62683129 0.0079487013 29 34 20 -0.018645722 -0.10294704 0.99451196 0.013108307
-0.15452708 0.62749827 0.011368604 28 33 19 -0.013780647 -0.10346548 0.99453735 0.012947343
-0.14579791 0.6266098 0.006877332 29 34 22 -0.0089208838 -0.10435514 0.99449992 0.012771172
-0.13715594 0.62552649 0.0013958673 29 34 22 -0.0039005894 -0.1053509 0.9944272 0.012564837
-0.12902097 0.62347025 -0.0090341102 29 34 22 0.0026044629 -0.10657036 0.99430156 0.012343698
-0.12041215 0.62219161 -0.015509401 27 32 20 0.0088664023 -0.10791091 0.9941209 0.012084304
-0.111972 0.62052321 -0.02396589 32 37 25 0.017051129 -0.10941405 0.99384987 0.011728408
-0.10348636 0.6188544 -0.032425273 30 33 21 0.023560056 -0.11103342 0.99353725 0.011402703
-0.095625222 0.61582232 -0.047817107 32 34 24 0.03267647 -0.11307056 0.99304932 0.011089377
-0.086842909 0.61454159 -0.05430251 23 30 19 0.039085072 -0.11441518 0.99266368 0.010779976
-0.078566656 0.61209196 -0.066731989 23 30 26 0.047363468 -0.11659282 0.99204963 0.010326935
-0.013041761 0.61071485 -0.073537521 33 39 32 0.079880692 -0.12034806 0.98951256 0.0095571466
-0.0031715299 0.61196667 -0.067143656 27 32 21 0.088747092 -0.11890423 0.98893142 0.0099033527
0.0068521942 0.6138041 -0.057771958 24 29 17 0.094620056 -0.11759539 0.98854345 0.010197133
0.017003814 0.61622751 -0.045420926 27 30 18 0.10293262 -0.11599495 0.98790169 0.010586576
0.027316486 0.61943227 -0.029096739 29 32 18 0.10967665 -0.11465528 0.98733217 0.010885666
0.037029322 0.62088186 -0.021698194 28 33 19 0.11647639 -0.11354589 0.98668146 0.011173618
0.046696652 0.62233192 -0.014296992 28 33 19 0.12250602 -0.11308338 0.98600411 0.011364154
0.056218062 0.62339216 -0.0088783205 27 32 18 0.12834412 -0.11226794 0.98535442 0.011599095
0.065752707 0.62464797 -0.0024649038 32 37 25 0.13393112 -0.11153913 0.98469341 0.011772968
0.075203016 0.62570912 0.002957911 28 35 23 0.13900986 -0.11089791 0.98406178 0.011969174
0.084535822 0.62637991 0.0063963048 28 35 24 0.14581591 -0.11028406 0.9831453 0.012138878
0.093807042 0.62685567 0.0088427709 29 36 25 0.15041259 -0.1101291 0.98246998 0.012228941
0.10273725 0.6255731 0.0023489909 27 33 25 0.15413877 -0.1099854 0.98190838 0.012270235
0.11166842 0.62409472 -0.0051408391 32 38 30 0.15867427 -0.11013079 0.9811694 0.012338868
0.12063941 0.62261581 -0.012632752 32 40 32 0.16212101 -0.10995772 0.98062527 0.012345554
0.12967768 0.62133193 -0.019133069 34 42 34 0.16450652 -0.10990454 0.98023379 0.012392913
0.13870084 0.61965668 -0.027623538 33 41 33 0.16745734 -0.10991426 0.97973293 0.012429328
0.14761709 0.61661178 -0.0430771 36 44 36 0.17004007 -0.11013911 0.97926271 0.012439319
0.15659972 0.61337036 -0.059529811 43 52 41 0.17065394 -0.11120024 0.97903591 0.012499252
0.16570552 0.61051911 -0.073998906 44 50 42 0.1732136 -0.1117589 0.97852266 0.012538191
-0.24938937 0.60236406 -0.068399645 237 251 255 -0.028210485 -0.10528183 0.9940421 0.013724931
-0.23484346 0.60953963 -0.032414272 8 19 24 -0.029706178 -0.10312556 0.99422455 0.013685981
-0.22443929 0.61100364 -0.025056796 29 37 30 -0.027174657 -0.10290132 0.99432015 0.013575714
-0.21394794 0.6126653 -0.016708747 28 34 26 -0.024472348 -0.10323145 0.9943561 0.013414384
-0.20350774 0.61432743 -0.0083577102 26 31 17 -0.020899033 -0.10373603 0.99438512 0.013235394
-0.19311878 0.61599028 -3.9301631e-006 30 35 21 -0.017982963 -0.1039402 0.99442083 0.013164801
-0.18377446 0.61607635 0.00044714691 29 34 20 -0.014084686 -0.10518294 0.994353 0.012956248
-0.17431451 0.61635971 0.0018866642 29 34 20 -0.006643041 -0.10610057 0.99433309 0.012700949
-0.16474745 0.61684048 0.0043155942 29 34 20 -0.0025379632 -0.10651498 0.9943077 0.01254784
-0.15508176 0.61751866 0.0077341981 29 34 22 0.0027494053 -0.10753333 0.99419761 0.012333875
-0.14611571 0.61701328 0.0052208262 26 33 22 0.0083716791 -0.1089645 0.99401027 0.012131573
-0.13724825 0.61631042 0.0017175431 26 33 21 0.013779826 -0.11009009 0.99382591 0.011862389
-0.12922069 0.61402828 -0.009700614 28 35 23 0.020673538 -0.11133088 0.99356824 0.011535262
-0.12092203 0.6121403 -0.019143736 26 31 19 0.027625857 -0.1127749 0.9932363 0.011156264
-0.11277504 0.60985667 -0.030568853 27 32 21 0.034735374 -0.11429787 0.99283898 0.010828217
-0.10456549 0.60757238 -0.041997857 30 32 22 0.04309465 -0.11631502 0.99227679 0.010474321
-0.096293353 0.60528725 -0.053430267 31 35 27 0.049917527 -0.11802564 0.99175495 0.010065655
-0.087865762 0.60319906 -0.063876316 26 32 25 0.057442654 -0.12002356 0.99110758 0.0095763449
-0.079561405 0.60071492 -0.076306261 9 16 13 0.065129541 -0.12250111 0.99032891 0.0090867253
-0.0031982602 0.6027748 -0.065824188 30 35 24 0.07639467 -0.12264809 0.98950541 0.0090803355
0.0066939709 0.60424495 -0.058436878 29 34 23 0.081861116 -0.12153054 0.98920608 0.0094434945
0.016663944 0.60611153 -0.049063023 28 31 19 0.089289472 -0.12017418 0.98872912 0.0098011065
0.026870923 0.60896862 -0.034725409 29 32 20 0.097786702 -0.11829369 0.98815185 0.01018216
0.036768846 0.61103475 -0.02435194 26 31 19 0.10351089 -0.11752244 0.98766077 0.010431238
0.04649803 0.61270547 -0.015959466 27 32 18 0.10992187 -0.11663087 0.98707348 0.010723599
0.056125782 0.61417884 -0.0085567432 29 34 20 0.11534289 -0.11603799 0.9865247 0.010963949
0.065376237 0.61426604 -0.0081001949 30 35 23 0.12028749 -0.11543944 0.98600423 0.011130358
0.074932881 0.61574024 -0.00069332606 27 34 22 0.12741143 -0.11454142 0.98521376 0.011376027
0.084193766 0.61602598 0.00075803074 29 36 24 0.13320373 -0.11406402 0.98450285 0.011529212
0.093637608 0.61730289 0.0071760546 27 33 25 0.13871415 -0.11361236 0.98379385 0.011738557
0.10257332 0.61600322 0.00068230031 29 35 27 0.14377712 -0.11312198 0.98312324 0.011882124
0.11141045 0.61390996 -0.0097876173 29 37 30 0.14647909 -0.11317436 0.98271829 0.011905918
0.12036511 0.61221272 -0.018273551 30 38 31 0.14939517 -0.11302485 0.98229641 0.012001438
0.12939279 0.61071318 -0.025768083 30 38 31 0.1535057 -0.11287454 0.98167968 0.012109549
0.13848493 0.60941166 -0.032270957 30 38 30 0.15743625 -0.11292479 0.98105115 0.012187911
0.14756757 0.60771281 -0.040764108 36 44 36 0.15959057 -0.11305266 0.98068833 0.012243791
0.15661989 0.60521966 -0.053237643 41 50 39 0.16154699 -0.11354975 0.98031056 0.012286001
0.16575658 0.60292417 -0.064720444 41 48 37 0.16283345 -0.11397291 0.98004854 0.012371478
-0.23535217 0.59961009 -0.035050619 12 23 26 -0.016303437 -0.10779116 0.99403965 0.013282314
-0.22507487 0.60089689 -0.028681852 28 37 26 -0.013306496 -0.10766967 0.99409753 0.01314625
-0.21457188 0.60258394 -0.020335356 26 33 22 -0.010493706 -0.10769049 0.99412882 0.012965988
-0.20399018 0.60447168 -0.010998132 27 32 18 -0.0061075753 -0.10798464 0.99413365 0.012775302
-0.19346532 0.60635996 -0.0016575889 31 35 18 0.00051443564 -0.10901142 0.99404031 0.012516248
-0.1839911 0.60664886 -0.00021909997 28 33 19 0.0038718639 -0.10941426 0.99398851 0.012350055
-0.17452826 0.60693789 0.0012202921 29 34 20 0.0098166093 -0.11014149 0.99386728 0.012138803
-0.16519529 0.60702693 0.0016716926 28 33 19 0.014996086 -0.11147065 0.99365443 0.011858435
-0.15563667 0.60751629 0.0041008242 29 34 22 0.021116912 -0.11227597 0.99345255 0.011609781
-0.14677213 0.60680497 0.00059800374 26 33 22 0.028089497 -0.11363357 0.99312538 0.011256374
-0.13789053 0.60609335 -0.0029058089 28 35 23 0.033478573 -0.11484285 0.99281925 0.010971485
-0.12963478 0.60418016 -0.01234531 27 34 22 0.039915644 -0.1160437 0.99244153 0.010652171
-0.12143214 0.60206616 -0.022777276 28 33 21 0.046155203 -0.11745777 0.99200457 0.010283068
-0.11357848 0.59915024 -0.03717066 27 32 20 0.053101283 -0.11903322 0.99146914 0.0099037308
-0.10515208 0.59723502 -0.046620108 29 34 23 0.063694023 -0.12169309 0.99052185 0.0092388839
-0.097057603 0.59451777 -0.060031973 30 34 26 0.06858816 -0.12307122 0.99002463 0.0087916078
-0.088889174 0.59179956 -0.073448144 25 32 29 0.071580566 -0.12450039 0.98963404 0.0086062327
-0.0044369893 0.58997583 -0.082351476 33 38 27 0.071142413 -0.12557444 0.98952997 0.00857116
0.0057617826 0.59227115 -0.071001291 27 32 20 0.071250364 -0.12511462 0.98958039 0.0086282166
0.016015602 0.59496886 -0.057663437 27 30 16 0.07466986 -0.12444011 0.98941332 0.0088435207
0.026366217 0.59827 -0.041344784 27 32 18 0.079743735 -0.12327096 0.98916376 0.0091611398
